ply
format ascii 1.0
element vertex 1927
property float32 x
property float32 y
property float32 z
end_header
-1.55859 -0.352539 2.45264
-1.54639 -0.351562 2.44873
-1.53369 -0.350586 2.44482
-1.52197 -0.349609 2.44189
-1.51074 -0.349121 2.43994
-1.50049 -0.348633 2.43896
-1.49023 -0.347656 2.43799
-1.47998 -0.347656 2.43701
-1.47021 -0.347168 2.43701
-1.45996 -0.34668 2.43652
-1.4502 -0.346191 2.43652
-1.44092 -0.345703 2.43652
-1.43066 -0.345215 2.43604
-1.4209 -0.344727 2.43506
-1.41113 -0.344238 2.43457
-1.40088 -0.34375 2.43408
-1.39111 -0.343262 2.43311
-1.38184 -0.343262 2.43311
-1.37207 -0.342773 2.43213
-1.36182 -0.341797 2.43115
-1.35156 -0.341309 2.4292
-1.3418 -0.34082 2.42871
-1.33154 -0.340332 2.42725
-1.32178 -0.339844 2.42578
-1.31152 -0.339355 2.42383
-1.30176 -0.338867 2.42285
-1.29199 -0.338379 2.42139
-1.28271 -0.337891 2.42041
-1.27344 -0.337402 2.41992
-1.26367 -0.336914 2.41895
-1.25439 -0.336426 2.41846
-1.24463 -0.335938 2.41699
-1.23535 -0.335449 2.41553
-1.22559 -0.334961 2.41406
-1.21631 -0.334473 2.41309
-1.20703 -0.333984 2.4126
-1.19727 -0.333496 2.41016
-1.18701 -0.333008 2.40771
-1.17773 -0.33252 2.40625
-1.16846 -0.332031 2.40527
-1.15918 -0.331543 2.4043
-1.1499 -0.331055 2.40283
-1.14062 -0.331055 2.40186
-1.13232 -0.330566 2.40186
-1.12305 -0.330078 2.40088
-1.11377 -0.32959 2.39844
-1.10449 -0.329102 2.39795
-1.0957 -0.328613 2.39648
-1.08643 -0.328125 2.39453
-1.07617 -0.327637 2.3916
-1.06689 -0.327148 2.38916
-1.05811 -0.32666 2.38818
-1.04932 -0.326172 2.3877
-1.04102 -0.326172 2.3877
-1.03174 -0.325684 2.38574
-1.02295 -0.325195 2.38477
-1.01465 -0.324707 2.38477
-1.00586 -0.324707 2.3833
-0.99707 -0.32373 2.38135
-0.988281 -0.323242 2.37988
-0.979492 -0.323242 2.37891
-0.970215 -0.322266 2.37598
-0.960938 -0.321777 2.37402
-0.952637 -0.321777 2.37305
-0.944336 -0.321289 2.37256
-0.936035 -0.321289 2.37207
-0.928223 -0.320801 2.37207
-0.919434 -0.320312 2.37061
-0.911133 -0.319824 2.36914
-0.902344 -0.319824 2.36768
-0.894043 -0.319336 2.36719
-0.885742 -0.318848 2.36572
-0.877441 -0.318359 2.36426
-0.869141 -0.318359 2.36328
-0.859863 -0.317383 2.36035
-0.851562 -0.317383 2.35889
-0.843262 -0.316895 2.35791
-0.835449 -0.316895 2.35742
-0.827637 -0.316406 2.35791
-0.819824 -0.316406 2.35742
-0.812012 -0.315918 2.35693
-0.803711 -0.315918 2.35645
-0.795898 -0.31543 2.35547
-0.788086 -0.31543 2.35498
-0.780273 -0.314941 2.35498
-0.771973 -0.314453 2.35303
-0.763184 -0.313965 2.35156
-0.754883 -0.313965 2.34912
-0.746582 -0.313477 2.34668
-0.738281 -0.312988 2.34473
-0.730469 -0.3125 2.34375
-0.722656 -0.3125 2.34326
-0.714844 -0.312012 2.34277
-0.707031 -0.312012 2.34229
-0.699707 -0.312012 2.34326
-0.692383 -0.311523 2.34277
-0.68457 -0.311523 2.3418
-0.676758 -0.311035 2.34131
-0.668945 -0.310547 2.33984
-0.660645 -0.310547 2.3374
-0.652832 -0.310059 2.33545
-0.644531 -0.30957 2.33301
-0.63623 -0.309082 2.33057
-0.628418 -0.308594 2.32959
-0.621094 -0.308594 2.32861
-0.613281 -0.308594 2.3291
-0.605957 -0.308105 2.32861
-0.598145 -0.307617 2.32715
-0.590332 -0.307617 2.3252
-0.583008 -0.307129 2.32422
-0.575195 -0.307129 2.32373
-0.567383 -0.306641 2.32178
-0.560059 -0.306641 2.32031
-0.552246 -0.305664 2.31836
-0.544434 -0.305664 2.31641
-0.536621 -0.305176 2.31445
-0.528809 -0.304688 2.31299
-0.521973 -0.304688 2.31299
-0.514648 -0.304688 2.31348
-0.507324 -0.304688 2.31348
-0.5 -0.304688 2.31348
-0.492676 -0.304199 2.3125
-0.485352 -0.304199 2.31152
-0.478027 -0.303711 2.30957
-0.470215 -0.303711 2.30859
-0.462891 -0.303223 2.30615
-0.455078 -0.302734 2.30371
-0.447754 -0.302246 2.30176
-0.439941 -0.301758 2.2998
-0.432617 -0.301758 2.29785
-0.425293 -0.30127 2.29639
-0.417969 -0.30127 2.2959
-0.410645 -0.300781 2.29443
-0.40332 -0.300781 2.29395
-0.395996 -0.300293 2.29248
-0.388672 -0.300293 2.29053
-0.381348 -0.299805 2.28857
-0.374023 -0.299805 2.28809
-0.367188 -0.299805 2.28809
-0.359863 -0.299316 2.28662
-0.352539 -0.298828 2.28564
-0.345703 -0.299316 2.28564
-0.338867 -0.298828 2.28564
-0.331543 -0.298828 2.28516
-0.324707 -0.298828 2.28516
-0.317383 -0.29834 2.2832
-0.310059 -0.29834 2.28174
-0.303223 -0.297852 2.28076
-0.295898 -0.297852 2.27979
-0.289062 -0.297852 2.27881
-0.281738 -0.297363 2.27686
-0.274902 -0.297363 2.27588
-0.267578 -0.296875 2.2749
-0.260742 -0.296875 2.27441
-0.253906 -0.296875 2.27441
-0.246582 -0.296875 2.27393
-0.239746 -0.296387 2.27295
-0.23291 -0.296387 2.27246
-0.225586 -0.296387 2.27197
-0.21875 -0.296387 2.27148
-0.211914 -0.295898 2.271
-0.205078 -0.295898 2.27051
-0.198242 -0.295898 2.26904
-0.190918 -0.29541 2.26758
-0.184082 -0.29541 2.26758
-0.177246 -0.29541 2.26709
-0.17041 -0.29541 2.2666
-0.163574 -0.29541 2.26611
-0.156738 -0.294922 2.26562
-0.149902 -0.294922 2.26611
-0.143066 -0.29541 2.2666
-0.13623 -0.294922 2.26611
-0.129395 -0.294922 2.26514
-0.12207 -0.294922 2.26416
-0.115234 -0.294922 2.26514
-0.108887 -0.294922 2.26611
-0.101562 -0.294922 2.2666
-0.0952148 -0.294922 2.26611
-0.0883789 -0.294922 2.26709
-0.081543 -0.29541 2.26807
-0.074707 -0.29541 2.27002
-0.0678711 -0.29541 2.271
-0.0610352 -0.29541 2.27197
-0.0541992 -0.295898 2.27344
-0.0473633 -0.295898 2.2749
-0.0405273 -0.295898 2.27539
-0.0336914 -0.296387 2.27588
-0.0268555 -0.296387 2.27637
-0.0200195 -0.296387 2.27734
-0.0131836 -0.296387 2.27734
-0.00634766 -0.296387 2.27637
0.000976562 -0.296387 2.27686
0.00732422 -0.296387 2.27637
0.0146484 -0.295898 2.27539
0.0214844 -0.295898 2.2749
0.0283203 -0.296387 2.27588
0.0351562 -0.296387 2.27734
0.0419922 -0.296387 2.27783
0.0488281 -0.296387 2.2793
0.0556641 -0.296875 2.28027
0.0625 -0.296875 2.28125
0.0698242 -0.296875 2.28174
0.0761719 -0.296875 2.28271
0.0834961 -0.296875 2.2832
0.090332 -0.296875 2.28271
0.097168 -0.296875 2.28076
0.104004 -0.296875 2.2793
0.11084 -0.296875 2.27832
0.117676 -0.296387 2.27686
0.124512 -0.296387 2.27441
0.130859 -0.295898 2.27197
0.137695 -0.29541 2.26953
0.144531 -0.29541 2.2666
0.150879 -0.294922 2.26416
0.157715 -0.294922 2.26318
0.164551 -0.294922 2.2627
0.171387 -0.294922 2.2627
0.178223 -0.294922 2.26318
0.185547 -0.294922 2.26367
0.192383 -0.29541 2.26611
0.199707 -0.295898 2.26855
0.206543 -0.295898 2.27051
0.213867 -0.296387 2.27197
0.220703 -0.296387 2.27393
0.228027 -0.296875 2.27588
0.234863 -0.297363 2.27734
0.241699 -0.297363 2.27832
0.249023 -0.297363 2.2793
0.255859 -0.297852 2.28076
0.263184 -0.29834 2.28418
0.270508 -0.298828 2.28662
0.27832 -0.299316 2.29102
0.286133 -0.300293 2.29688
0.293945 -0.30127 2.30518
0.302246 -0.302734 2.31543
0.312012 -0.305176 2.33252
0.320801 -0.307129 2.34766
0.329102 -0.308105 2.35645
0.337402 -0.309082 2.36328
0.345703 -0.310059 2.36914
0.354004 -0.311035 2.375
0.361328 -0.311035 2.37695
0.369141 -0.311523 2.37793
0.376465 -0.311523 2.37744
0.383301 -0.311523 2.37646
0.390137 -0.311035 2.37402
0.396973 -0.311035 2.37061
0.40332 -0.310059 2.36523
0.409668 -0.30957 2.35889
0.414551 -0.308105 2.34619
0.418945 -0.305664 2.32959
0.422852 -0.303711 2.3125
0.427734 -0.302246 2.29883
0.433594 -0.30127 2.2915
0.44043 -0.30127 2.2915
0.450195 -0.302734 2.3042
0.460449 -0.305176 2.3208
0.471191 -0.307617 2.3374
0.47998 -0.308594 2.3457
0.48877 -0.30957 2.35107
0.497559 -0.311035 2.35938
0.505859 -0.311523 2.36328
0.513672 -0.311523 2.36475
0.520996 -0.312012 2.36475
0.52832 -0.311523 2.36377
0.535156 -0.311523 2.35986
0.541504 -0.311035 2.35693
0.547363 -0.310547 2.35059
0.552734 -0.30957 2.3418
0.557617 -0.308105 2.33057
0.561523 -0.306152 2.31592
0.566406 -0.304688 2.30518
0.571777 -0.304199 2.29785
0.577148 -0.303223 2.29102
0.58252 -0.302246 2.2832
0.588379 -0.301758 2.27832
0.594727 -0.30127 2.27441
0.601074 -0.30127 2.27051
0.607422 -0.300781 2.26807
0.614258 -0.300781 2.26514
0.620605 -0.300293 2.26172
0.626465 -0.299805 2.2583
0.632812 -0.299805 2.25537
0.639648 -0.299805 2.25293
0.646484 -0.299805 2.25146
0.65332 -0.299316 2.24951
0.659668 -0.299316 2.24707
0.666504 -0.299316 2.24561
0.67334 -0.299316 2.24365
0.680176 -0.298828 2.2417
0.686523 -0.298828 2.23975
0.693359 -0.298828 2.2373
0.699707 -0.298828 2.23486
0.706543 -0.29834 2.23291
0.712402 -0.297852 2.22852
0.719238 -0.297852 2.22607
0.724609 -0.297363 2.2207
0.728516 -0.295898 2.20947
0.730957 -0.294434 2.19629
0.731445 -0.291992 2.17676
0 0 0
0 0 0
0 0 0
0 0 0
0 0 0
0 0 0
0 0 0
0 0 0
0 0 0
0.802734 -0.292969 2.17188
0.814941 -0.294922 2.18506
0.822754 -0.29541 2.18652
0.833496 -0.296875 2.1958
0.84375 -0.297852 2.20215
0.851562 -0.29834 2.2041
0.859375 -0.298828 2.20459
0.867188 -0.298828 2.20508
0.875 -0.299316 2.20557
0.882812 -0.299316 2.20557
0.890625 -0.299805 2.20703
0.898438 -0.300293 2.20752
0.907227 -0.300781 2.20947
0.915039 -0.30127 2.21045
0.92334 -0.30127 2.21143
0.931641 -0.301758 2.21289
0.94043 -0.302246 2.21484
0.94873 -0.302734 2.2168
0.956543 -0.302734 2.2168
0.964355 -0.303223 2.2168
0.971191 -0.303223 2.21582
0.979004 -0.303223 2.21436
0.986328 -0.303711 2.21436
0.994141 -0.303711 2.21338
1.00146 -0.303711 2.2124
1.00879 -0.304199 2.21191
1.01709 -0.304688 2.2124
1.02539 -0.304688 2.21338
1.03418 -0.305176 2.21533
1.04297 -0.305664 2.21729
1.05176 -0.306152 2.21826
1.06006 -0.306641 2.21875
1.06787 -0.306641 2.21826
1.07617 -0.307129 2.21826
1.08398 -0.307129 2.21826
1.0918 -0.307617 2.21777
1.09961 -0.307617 2.21729
1.1084 -0.308105 2.21777
1.11621 -0.308594 2.21729
1.12451 -0.308594 2.21729
1.1333 -0.309082 2.21826
1.14209 -0.30957 2.21924
1.15088 -0.30957 2.21973
1.15869 -0.310059 2.22021
1.16748 -0.310547 2.22021
1.17578 -0.310547 2.22021
1.18457 -0.311035 2.2207
1.19287 -0.311523 2.22119
1.20166 -0.312012 2.22119
1.20996 -0.312012 2.22119
1.21924 -0.3125 2.22266
1.22852 -0.313477 2.22412
1.23779 -0.313965 2.2251
1.24707 -0.313965 2.22607
1.25684 -0.314941 2.22754
1.2666 -0.31543 2.22949
1.27539 -0.315918 2.23047
1.28467 -0.316406 2.23096
1.29395 -0.316895 2.23193
1.30371 -0.317383 2.2334
1.31201 -0.317383 2.23291
1.3208 -0.317871 2.23242
1.32959 -0.318359 2.23242
1.33936 -0.318848 2.23389
1.34863 -0.319336 2.23389
1.35693 -0.319336 2.23242
1.36621 -0.319824 2.23291
1.375 -0.320312 2.23291
1.38428 -0.320312 2.23242
1.39307 -0.320801 2.23242
1.40234 -0.321289 2.23242
1.41162 -0.321777 2.23291
1.4209 -0.322266 2.23291
1.43066 -0.322754 2.23291
1.43994 -0.323242 2.2334
1.4502 -0.32373 2.23438
1.45947 -0.324219 2.23438
1.46924 -0.324707 2.23438
1.47852 -0.324707 2.23389
1.48828 -0.325195 2.23438
1.49756 -0.325684 2.23438
1.50732 -0.326172 2.23438
1.51709 -0.32666 2.23486
1.52637 -0.327148 2.23389
1.53564 -0.327148 2.23291
1.54492 -0.327637 2.23242
1.5542 -0.328125 2.23145
1.56445 -0.328613 2.23193
1.57373 -0.329102 2.23145
1.5835 -0.32959 2.23096
1.59375 -0.330078 2.23096
1.60449 -0.330566 2.23193
1.61523 -0.331055 2.23291
1.62646 -0.332031 2.23438
1.63721 -0.33252 2.23486
1.64795 -0.333008 2.23584
1.65967 -0.333984 2.23779
1.6709 -0.334473 2.23877
1.68262 -0.335449 2.24072
1.69629 -0.336914 2.24512
1.7085 -0.337402 2.24658
1.7207 -0.338379 2.24902
1.73291 -0.339355 2.25049
1.74561 -0.340332 2.25342
1.75586 -0.34082 2.25244
1.77002 -0.341797 2.25635
1.78125 -0.342285 2.25684
1.79736 -0.34375 2.26367
1.80664 -0.344238 2.26074
1.82178 -0.345703 2.26562
1.83203 -0.345703 2.26465
1.85596 -0.349121 2.28027
1.86621 -0.349121 2.27832
0 0 0
0 0 0
0 0 0
0 0 0
0 0 0
0 0 0
0 0 0
0 0 0
0 0 0
0 0 0
0 0 0
0 0 0
0 0 0
0 0 0
0 0 0
0 0 0
0.793945 -0.138184 0.873047
0.797852 -0.138672 0.87207
0.803223 -0.138672 0.872559
0.810547 -0.139648 0.875
0.815918 -0.139648 0.875488
0.817871 -0.139648 0.87207
0.822754 -0.140137 0.87207
0.831543 -0.141113 0.875977
0.836914 -0.141113 0.875977
0.841309 -0.141602 0.875488
0.846191 -0.141602 0.875488
0.852539 -0.14209 0.875977
0.859375 -0.142578 0.87793
0.866211 -0.143066 0.879395
0.872559 -0.144043 0.880371
0.87793 -0.144043 0.880371
0.882812 -0.144531 0.879395
0.886719 -0.144531 0.87793
0.894043 -0.14502 0.879883
0.899902 -0.145508 0.880371
0.904297 -0.145508 0.878906
0.911133 -0.145996 0.879883
0.915527 -0.146484 0.878906
0.92041 -0.146484 0.878418
0.92627 -0.146973 0.878418
0.934082 -0.147461 0.879883
0.937988 -0.147949 0.878418
0.942871 -0.147949 0.877441
0.946777 -0.147949 0.875488
0.950195 -0.147949 0.873535
0.953125 -0.147949 0.870605
0.956543 -0.147949 0.868164
0.958984 -0.147949 0.864746
0.961426 -0.147461 0.861816
0.963379 -0.147461 0.85791
0.964355 -0.146973 0.853516
0.964355 -0.146484 0.848145
0.96582 -0.145996 0.844238
0.966309 -0.145996 0.839355
0.966797 -0.145508 0.834473
0.967773 -0.14502 0.830078
0.968262 -0.144531 0.825195
0.963867 -0.143555 0.816406
0.961914 -0.142578 0.80957
0.960938 -0.14209 0.803711
0.960938 -0.141602 0.798828
0.962891 -0.141113 0.79541
0.963379 -0.140625 0.790527
0.954102 -0.13916 0.77832
0.953125 -0.138184 0.772461
0.967773 -0.140137 0.779297
0 0 0
0 0 0
0 0 0
0 0 0
0 0 0
0 0 0
0 0 0
0 0 0
0 0 0
0 0 0
0 0 0
0 0 0
0 0 0
0 0 0
0 0 0
0 0 0
0 0 0
0 0 0
0 0 0
0 0 0
0 0 0
0 0 0
-0.254883 -0.0336914 0.183594
-0.253418 -0.0336914 0.183594
-0.252441 -0.0336914 0.184082
-0.251465 -0.0332031 0.184082
-0.25 -0.0332031 0.18457
-0.249023 -0.0332031 0.18457
-0.247559 -0.0332031 0.18457
-0.246094 -0.0332031 0.185059
-0.245117 -0.0332031 0.185059
-0.244141 -0.0332031 0.185547
-0.243164 -0.0332031 0.185547
-0.241699 -0.0332031 0.186035
-0.240723 -0.0332031 0.186035
-0.239746 -0.0327148 0.186523
-0.23877 -0.0327148 0.187012
-0.237793 -0.0327148 0.1875
-0.237305 -0.0327148 0.187988
-0.236328 -0.0327148 0.188477
-0.235352 -0.0327148 0.188965
0 0 0
0 0 0
0 0 0
0 0 0
0 0 0
0 0 0
0 0 0
0 0 0
0 0 0
0 0 0
0 0 0
0 0 0
0 0 0
0 0 0
0 0 0
0 0 0
0 0 0
0 0 0
0 0 0
-2.80762 -0.419922 2.53857
-2.79297 -0.419434 2.54053
-2.7749 -0.418457 2.53906
-2.75977 -0.41748 2.54053
-2.74316 -0.416016 2.54053
-2.72656 -0.415527 2.54053
-2.70898 -0.414062 2.53906
-2.68994 -0.412598 2.53662
-2.67139 -0.411621 2.53467
-2.65332 -0.410156 2.53223
-2.63428 -0.408691 2.5293
-2.61816 -0.407715 2.5293
-2.60156 -0.406738 2.52832
-2.58447 -0.405273 2.52686
-2.56934 -0.404785 2.52734
-2.55371 -0.40332 2.52686
-2.53809 -0.402344 2.52637
-2.52246 -0.401855 2.52588
-2.50684 -0.400879 2.52539
-2.49023 -0.399414 2.52393
-2.47314 -0.398438 2.52148
-2.45703 -0.397461 2.52051
-2.44189 -0.396484 2.52002
-2.42529 -0.39502 2.51807
-2.4082 -0.394043 2.51465
-2.39014 -0.392578 2.51172
-2.37402 -0.391113 2.50928
-2.35742 -0.390137 2.50684
-2.34082 -0.388672 2.50391
-2.3252 -0.387695 2.50244
-2.30908 -0.386719 2.49951
-2.29346 -0.385742 2.49756
-2.27734 -0.384277 2.49512
-2.26123 -0.383301 2.49268
-2.24561 -0.381836 2.48975
-2.22852 -0.380371 2.48584
-2.21191 -0.379395 2.48242
-2.19678 -0.378418 2.48047
-2.18164 -0.377441 2.47803
-2.16357 -0.375488 2.47266
-2.14551 -0.374023 2.4668
-2.13086 -0.373047 2.46436
-2.11621 -0.37207 2.46191
-2.09814 -0.370117 2.45557
-2.08154 -0.369141 2.45117
-2.06689 -0.368164 2.44824
-2.05176 -0.366699 2.44531
-2.03711 -0.365723 2.44238
-2.02148 -0.364258 2.43799
-2.00586 -0.363281 2.43408
-1.9917 -0.362305 2.43164
-1.97803 -0.361328 2.4292
-1.96387 -0.360352 2.42627
-1.9502 -0.359375 2.42432
-1.93652 -0.358398 2.42188
-1.92383 -0.357422 2.42041
-1.91113 -0.356934 2.41943
-1.89844 -0.355957 2.41797
-1.88721 -0.355469 2.41797
-1.87549 -0.35498 2.41797
-1.86475 -0.354492 2.41846
-1.85449 -0.354004 2.41992
-1.84375 -0.353516 2.42041
-1.83252 -0.353027 2.4209
-1.82275 -0.353027 2.42236
-1.81299 -0.352539 2.4248
-1.8042 -0.352539 2.42725
-1.79443 -0.352051 2.4292
-1.78418 -0.351562 2.43066
-1.7749 -0.351562 2.43262
-1.7666 -0.351562 2.43604
-1.75781 -0.351562 2.43896
-1.74951 -0.351562 2.44287
-1.74072 -0.351562 2.44531
-1.73145 -0.351562 2.44727
-1.72217 -0.351074 2.4502
-1.71338 -0.351074 2.45215
-1.7041 -0.350586 2.45459
-1.6958 -0.350586 2.45752
-1.68701 -0.350586 2.45996
-1.67773 -0.350586 2.4624
-1.66895 -0.350586 2.46484
-1.66016 -0.350098 2.4668
-1.65137 -0.350098 2.46973
-1.64209 -0.350098 2.47119
-1.63232 -0.349609 2.47217
-1.62207 -0.349121 2.47217
-1.61035 -0.348633 2.4707
-1.59814 -0.347656 2.46777
-1.58545 -0.34668 2.46338
-1.57227 -0.345703 2.45898
-1.55908 -0.344238 2.45459
-1.54639 -0.343262 2.44971
-1.53369 -0.342285 2.4458
-1.52197 -0.341797 2.44238
-1.51025 -0.34082 2.44043
-1.50049 -0.340332 2.43945
-1.48975 -0.339844 2.43799
-1.47949 -0.339355 2.43701
-1.46973 -0.338867 2.43701
-1.45996 -0.338379 2.43701
-1.4502 -0.337891 2.43701
-1.44043 -0.337402 2.43652
-1.43018 -0.337402 2.43604
-1.4209 -0.336914 2.43604
-1.41113 -0.336426 2.43506
-1.40088 -0.335938 2.43457
-1.39111 -0.335449 2.43408
-1.38135 -0.334961 2.43359
-1.37158 -0.334473 2.43262
-1.36133 -0.333984 2.43115
-1.35107 -0.333496 2.42969
-1.34131 -0.333008 2.42871
-1.33154 -0.33252 2.42725
-1.32129 -0.332031 2.42529
-1.31104 -0.331543 2.42334
-1.30127 -0.331055 2.42236
-1.2915 -0.330566 2.4209
-1.28223 -0.330078 2.42041
-1.27295 -0.32959 2.41992
-1.26367 -0.329102 2.41895
-1.25439 -0.328613 2.41846
-1.24463 -0.328125 2.41748
-1.23535 -0.327637 2.4165
-1.22559 -0.327148 2.41504
-1.21631 -0.327148 2.41406
-1.20654 -0.32666 2.4126
-1.19678 -0.325684 2.41064
-1.1875 -0.325195 2.40918
-1.17773 -0.324707 2.40771
-1.16846 -0.324219 2.40576
-1.15918 -0.32373 2.40527
-1.15039 -0.32373 2.4043
-1.14111 -0.323242 2.40332
-1.13232 -0.322754 2.40234
-1.12305 -0.322266 2.40088
-1.11377 -0.321777 2.3999
-1.10498 -0.321777 2.39893
-1.0957 -0.321289 2.39795
-1.08643 -0.320801 2.39551
-1.07666 -0.319824 2.39307
-1.06689 -0.319336 2.39062
-1.05811 -0.318848 2.38916
-1.0498 -0.318848 2.38867
-1.04102 -0.318359 2.3877
-1.03174 -0.317871 2.38574
-1.02295 -0.317383 2.38477
-1.01465 -0.317383 2.38477
-1.00586 -0.316895 2.3833
-0.996582 -0.316406 2.38086
-0.987793 -0.315918 2.37939
-0.979004 -0.31543 2.37793
-0.970215 -0.314941 2.37646
-0.960938 -0.314453 2.37402
-0.952148 -0.313965 2.37256
-0.943848 -0.313477 2.37207
-0.936035 -0.313477 2.37207
-0.927734 -0.313477 2.37207
-0.919434 -0.312988 2.37109
-0.911133 -0.3125 2.36963
-0.902344 -0.312012 2.36816
-0.894043 -0.311523 2.36719
-0.885742 -0.311523 2.36572
-0.876953 -0.311035 2.36426
-0.868652 -0.310547 2.36279
-0.859863 -0.310059 2.35986
-0.851074 -0.30957 2.35791
-0.842773 -0.30957 2.35693
-0.834961 -0.309082 2.35645
-0.827148 -0.309082 2.35693
-0.819336 -0.308594 2.35645
-0.811035 -0.308594 2.35596
-0.803223 -0.308105 2.35547
-0.79541 -0.308105 2.35449
-0.787598 -0.307617 2.354
-0.779785 -0.307617 2.354
-0.771484 -0.307129 2.35205
-0.762695 -0.306641 2.3501
-0.754395 -0.306152 2.34863
-0.746582 -0.305664 2.34619
-0.738281 -0.305664 2.34473
-0.730469 -0.305176 2.34375
-0.722656 -0.305176 2.34326
-0.714844 -0.304688 2.34277
-0.707031 -0.304688 2.34277
-0.699707 -0.304688 2.34326
-0.692383 -0.304199 2.34326
-0.68457 -0.304199 2.34229
-0.676758 -0.303711 2.34131
-0.668945 -0.303711 2.34033
-0.660645 -0.303223 2.33838
-0.652832 -0.302734 2.33643
-0.644531 -0.302246 2.33398
-0.63623 -0.301758 2.33154
-0.628418 -0.30127 2.3291
-0.620605 -0.30127 2.32861
-0.613281 -0.300781 2.32764
-0.605469 -0.300781 2.32764
-0.598145 -0.300781 2.32666
-0.590332 -0.300293 2.3252
-0.58252 -0.299805 2.32373
-0.575195 -0.299805 2.32324
-0.567871 -0.299316 2.32275
-0.560059 -0.299316 2.32129
-0.552246 -0.298828 2.31885
-0.544434 -0.29834 2.31689
-0.537109 -0.29834 2.31592
-0.529297 -0.297852 2.31445
-0.521973 -0.297852 2.31348
-0.514648 -0.297363 2.31348
-0.507324 -0.297363 2.31348
-0.5 -0.297363 2.31348
-0.492676 -0.297363 2.3125
-0.485352 -0.296875 2.31152
-0.478027 -0.296875 2.31055
-0.470215 -0.296387 2.30957
-0.462891 -0.295898 2.30762
-0.455078 -0.295898 2.30566
-0.447754 -0.29541 2.30322
-0.439941 -0.294922 2.30078
-0.432617 -0.294922 2.29932
-0.425293 -0.294434 2.29834
-0.417969 -0.293945 2.29688
-0.410645 -0.293945 2.29541
-0.40332 -0.293457 2.29395
-0.395996 -0.293457 2.29248
-0.388672 -0.292969 2.29102
-0.381348 -0.292969 2.28906
-0.374023 -0.29248 2.28809
-0.367188 -0.29248 2.28809
-0.359863 -0.29248 2.28662
-0.352539 -0.291992 2.28564
-0.345703 -0.291992 2.28564
-0.338379 -0.291992 2.28516
-0.331543 -0.291992 2.28564
-0.324707 -0.291992 2.28516
-0.317383 -0.291504 2.28418
-0.310059 -0.291504 2.28271
-0.303223 -0.291016 2.28076
-0.295898 -0.291016 2.27979
-0.289062 -0.291016 2.27979
-0.281738 -0.290527 2.27783
-0.274414 -0.290039 2.27637
-0.267578 -0.290039 2.27539
-0.260742 -0.290039 2.2749
-0.253906 -0.290039 2.2749
-0.246582 -0.290039 2.2749
-0.239746 -0.289551 2.27393
-0.23291 -0.289551 2.27246
-0.225586 -0.289551 2.27246
-0.21875 -0.289062 2.27148
-0.211914 -0.289062 2.27051
-0.205078 -0.289062 2.27002
-0.197754 -0.288574 2.26855
-0.190918 -0.288574 2.26807
-0.184082 -0.288574 2.26855
-0.177246 -0.288574 2.26709
-0.17041 -0.288574 2.26709
-0.163574 -0.288574 2.26709
-0.156738 -0.288086 2.2666
-0.149902 -0.288086 2.2666
-0.143066 -0.288086 2.26709
-0.13623 -0.288086 2.2666
-0.128906 -0.288086 2.26562
-0.12207 -0.288086 2.26465
-0.115723 -0.288086 2.26514
-0.108398 -0.288086 2.26611
-0.101562 -0.288086 2.26611
-0.0952148 -0.288086 2.26709
-0.0883789 -0.288574 2.26855
-0.081543 -0.288574 2.26904
-0.074707 -0.288574 2.27051
-0.0678711 -0.288574 2.27197
-0.0610352 -0.289062 2.27295
-0.0541992 -0.289062 2.2749
-0.0473633 -0.289062 2.27588
-0.0405273 -0.289062 2.27637
-0.0336914 -0.289062 2.27686
-0.0268555 -0.289062 2.27734
-0.0200195 -0.289551 2.27783
-0.0131836 -0.289551 2.27832
-0.00634766 -0.289551 2.27783
0.000976562 -0.289062 2.27686
0.00732422 -0.289062 2.27686
0.0146484 -0.289062 2.27637
0.0214844 -0.289062 2.27588
0.0283203 -0.289062 2.27637
0.0351562 -0.289551 2.27734
0.0419922 -0.289551 2.2793
0.0488281 -0.289551 2.28027
0.0556641 -0.290039 2.28076
0.0625 -0.290039 2.28223
0.0698242 -0.290039 2.28369
0.0766602 -0.290527 2.28418
0.0834961 -0.290527 2.28467
0.090332 -0.290527 2.28418
0.097168 -0.290039 2.2832
0.104004 -0.290039 2.28174
0.11084 -0.290039 2.27979
0.117676 -0.289551 2.27832
0.124512 -0.289551 2.27588
0.130859 -0.289062 2.27295
0.137695 -0.289062 2.271
0.144531 -0.288574 2.26758
0.150879 -0.288086 2.26514
0.157715 -0.288086 2.26367
0.164551 -0.288086 2.26318
0.171387 -0.288086 2.26318
0.178711 -0.288086 2.26367
0.185547 -0.288086 2.26465
0.192383 -0.288574 2.26611
0.199219 -0.288574 2.26807
0.206543 -0.289062 2.27051
0.213379 -0.289551 2.27197
0.220703 -0.289551 2.27344
0.227539 -0.290039 2.27539
0.234863 -0.290039 2.27637
0.241699 -0.290527 2.27783
0.249023 -0.290527 2.2793
0.255859 -0.290527 2.28076
0.263184 -0.291016 2.28271
0.270508 -0.291504 2.28516
0.277832 -0.291992 2.28906
0.285645 -0.292969 2.29492
0.293457 -0.293945 2.30225
0.301758 -0.29541 2.31299
0.311035 -0.297363 2.32812
0.320312 -0.299316 2.34326
0.329102 -0.300781 2.35352
0.336914 -0.301758 2.36035
0.345215 -0.302734 2.36719
0.353516 -0.303711 2.37305
0.361328 -0.303711 2.37549
0.368652 -0.304199 2.37646
0.375977 -0.304199 2.37793
0.383301 -0.304199 2.37646
0.390137 -0.303711 2.37354
0.396973 -0.303711 2.37012
0.40332 -0.303223 2.36572
0.409668 -0.302246 2.35938
0.415527 -0.30127 2.3501
0.419434 -0.298828 2.33301
0.422852 -0.296387 2.31201
0.427734 -0.294922 2.29834
0.432129 -0.292969 2.28467
0.438965 -0.293457 2.28418
0.449219 -0.29541 2.29883
0.459473 -0.297363 2.31592
0.470703 -0.299805 2.33496
0.479492 -0.30127 2.34326
0.488281 -0.302246 2.34912
0.497559 -0.303223 2.35742
0.505859 -0.304199 2.36279
0.513672 -0.304688 2.36475
0.520996 -0.304688 2.36572
0.52832 -0.304688 2.36426
0.535156 -0.304199 2.36084
0.541992 -0.303711 2.35791
0.547852 -0.303223 2.35156
0.553223 -0.302246 2.34326
0.557617 -0.300781 2.33203
0.561523 -0.299316 2.31738
0.565918 -0.297852 2.30518
0.571289 -0.296875 2.29785
0.577148 -0.295898 2.29102
0.58252 -0.29541 2.2832
0.588379 -0.294922 2.27832
0.594727 -0.294434 2.27441
0.601074 -0.293945 2.27051
0.607422 -0.293945 2.26807
0.61377 -0.293457 2.26514
0.620117 -0.293457 2.26221
0.626953 -0.292969 2.25928
0.633301 -0.292969 2.25635
0.639648 -0.29248 2.25293
0.646484 -0.29248 2.25146
0.65332 -0.29248 2.25
0.659668 -0.29248 2.24756
0.666504 -0.29248 2.24561
0.67334 -0.291992 2.24414
0.680176 -0.291992 2.24268
0.687012 -0.291992 2.24072
0.693359 -0.291992 2.23828
0.699707 -0.291504 2.23584
0.706543 -0.291504 2.2334
0.712402 -0.291016 2.229
0.718262 -0.290527 2.22461
0.723633 -0.290039 2.21924
0.728027 -0.289062 2.21045
0.730957 -0.287598 2.19678
0.731934 -0.285156 2.17822
0 0 0
0 0 0
0 0 0
0 0 0
0 0 0
0 0 0
0 0 0
0 0 0
0 0 0
0.802246 -0.286133 2.17188
0.814941 -0.288086 2.18506
0.822754 -0.288574 2.1875
0.833496 -0.290039 2.19629
0.84375 -0.291016 2.20312
0.852051 -0.291504 2.20459
0.859375 -0.291992 2.20508
0.867188 -0.291992 2.20605
0.875488 -0.29248 2.20654
0.882812 -0.29248 2.20654
0.890625 -0.292969 2.20703
0.898438 -0.292969 2.20752
0.90625 -0.293457 2.2085
0.914551 -0.293945 2.20947
0.922852 -0.294434 2.21143
0.931152 -0.294434 2.21289
0.939941 -0.29541 2.21533
0.948242 -0.29541 2.2168
0.956543 -0.295898 2.21729
0.963867 -0.296387 2.21729
0.97168 -0.296387 2.2168
0.979004 -0.296387 2.21533
0.986328 -0.296387 2.21436
0.993652 -0.296875 2.21338
1.00098 -0.296875 2.21289
1.00879 -0.296875 2.21191
1.01709 -0.297363 2.21289
1.02539 -0.297852 2.21338
1.03369 -0.297852 2.21436
1.04248 -0.29834 2.21582
1.05127 -0.298828 2.21777
1.05957 -0.299316 2.21826
1.06738 -0.299316 2.21777
1.0752 -0.299805 2.21777
1.0835 -0.299805 2.21777
1.09131 -0.300293 2.21777
1.09912 -0.300293 2.21631
1.10742 -0.300781 2.2168
1.11621 -0.30127 2.21777
1.12451 -0.30127 2.21777
1.13281 -0.301758 2.21826
1.1416 -0.302246 2.21875
1.15039 -0.302734 2.22021
1.15869 -0.302734 2.22021
1.16699 -0.303223 2.21973
1.17529 -0.303223 2.22021
1.18408 -0.303711 2.22021
1.19238 -0.304199 2.2207
1.20068 -0.304199 2.22021
1.20947 -0.304688 2.2207
1.21875 -0.305176 2.22168
1.22803 -0.305664 2.22363
1.23779 -0.306152 2.2251
1.24658 -0.306641 2.22607
1.25586 -0.307129 2.22705
1.26562 -0.308105 2.229
1.27539 -0.308594 2.23096
1.28467 -0.309082 2.23145
1.29395 -0.309082 2.23242
1.30371 -0.310059 2.23389
1.3125 -0.310059 2.23438
1.32129 -0.310547 2.23389
1.33057 -0.311035 2.23438
1.34033 -0.311523 2.23535
1.34912 -0.312012 2.23535
1.35742 -0.312012 2.23438
1.36621 -0.3125 2.23389
1.37549 -0.312988 2.2334
1.38428 -0.312988 2.2334
1.39355 -0.313477 2.2334
1.40234 -0.313965 2.23291
1.41162 -0.314453 2.2334
1.42139 -0.314941 2.23438
1.43066 -0.31543 2.23438
1.44043 -0.31543 2.23438
1.4502 -0.316406 2.23535
1.46045 -0.316895 2.23633
1.46973 -0.317383 2.23633
1.479 -0.317383 2.23535
1.48877 -0.317871 2.23584
1.49854 -0.318359 2.23633
1.5083 -0.318848 2.23633
1.51758 -0.319336 2.23633
1.52686 -0.319336 2.23486
1.53613 -0.319824 2.23438
1.54541 -0.320312 2.2334
1.55469 -0.320801 2.23291
1.56494 -0.320801 2.2334
1.57422 -0.321289 2.23242
1.58398 -0.321777 2.23242
1.59521 -0.322754 2.23389
1.60596 -0.323242 2.23486
1.6167 -0.32373 2.23584
1.62793 -0.324707 2.23682
1.63965 -0.325195 2.23926
1.65088 -0.326172 2.24023
1.66211 -0.32666 2.2417
1.67334 -0.327148 2.24268
1.68604 -0.328125 2.24561
1.69971 -0.32959 2.25
1.70947 -0.330078 2.24854
1.72168 -0.330566 2.25098
1.73584 -0.332031 2.25488
1.74902 -0.333008 2.2583
1.7627 -0.333984 2.26221
1.77686 -0.334961 2.26611
1.79248 -0.336914 2.27246
1.80908 -0.337891 2.27881
1.82568 -0.339844 2.28564
1.84082 -0.34082 2.29053
1.86621 -0.344238 2.30762
1.89062 -0.347168 2.32324
0 0 0
0 0 0
0 0 0
0 0 0
0 0 0
0 0 0
0 0 0
0 0 0
0 0 0
0.755371 -0.132812 0.872559
0.759277 -0.133301 0.872559
0.766113 -0.133789 0.875
0.770996 -0.133789 0.875
0.776367 -0.134277 0.875
0.78125 -0.134766 0.875488
0.786621 -0.135254 0.876465
0.791992 -0.135254 0.876953
0.797852 -0.135742 0.87793
0.803223 -0.13623 0.878418
0.808594 -0.136719 0.878418
0.813965 -0.136719 0.878906
0.819336 -0.137207 0.879395
0.824707 -0.137695 0.880371
0.830078 -0.137695 0.879883
0.834961 -0.138184 0.880371
0.840332 -0.138672 0.880371
0.845703 -0.138672 0.880371
0.850586 -0.13916 0.879883
0.856445 -0.139648 0.880371
0.863281 -0.140137 0.882324
0.871582 -0.141113 0.885254
0.878418 -0.141602 0.886719
0.882812 -0.141602 0.885254
0.887207 -0.141602 0.884277
0.894043 -0.14209 0.885742
0.900879 -0.143066 0.887207
0.90625 -0.143066 0.887207
0.910645 -0.143555 0.885742
0.915039 -0.143555 0.884277
0.919434 -0.143555 0.883301
0.925293 -0.144043 0.883301
0.931152 -0.144531 0.883301
0.935547 -0.144531 0.881836
0.939941 -0.144531 0.880371
0.943848 -0.144531 0.878906
0.947754 -0.144531 0.876953
0.950684 -0.144531 0.874023
0.953613 -0.144531 0.871582
0.957031 -0.144531 0.868652
0.958984 -0.144531 0.865234
0.961426 -0.144043 0.861816
0.962891 -0.144043 0.85791
0.964844 -0.143555 0.854492
0.964844 -0.143066 0.849121
0.965332 -0.142578 0.84375
0.965332 -0.14209 0.838867
0.964355 -0.141602 0.83252
0.964844 -0.141113 0.828125
0.964844 -0.140625 0.822754
0.960449 -0.139648 0.813477
0.95459 -0.138184 0.803711
0.953613 -0.137695 0.797852
0.955078 -0.137207 0.793945
0.956543 -0.137207 0.790527
0.946777 -0.135254 0.777344
0.9375 -0.133301 0.765137
0 0 0
0 0 0
0 0 0
0 0 0
0 0 0
0 0 0
0 0 0
0 0 0
0 0 0
0 0 0
0 0 0
0 0 0
0 0 0
0 0 0
0 0 0
0 0 0
0 0 0
0 0 0
0 0 0
0 0 0
0 0 0
0 0 0
0 0 0
0 0 0
-0.254395 -0.0327148 0.183594
-0.253418 -0.0327148 0.183594
-0.252441 -0.0327148 0.184082
-0.250977 -0.0327148 0.184082
-0.249512 -0.0327148 0.184082
-0.248535 -0.0327148 0.18457
-0.247559 -0.0322266 0.18457
-0.246094 -0.0322266 0.185059
-0.245117 -0.0322266 0.185059
-0.243652 -0.0322266 0.185059
-0.242676 -0.0322266 0.185547
-0.241699 -0.0322266 0.185547
-0.240723 -0.0322266 0.186035
-0.239746 -0.0322266 0.186523
-0.23877 -0.0322266 0.187012
-0.237305 -0.0322266 0.187012
-0.236816 -0.0322266 0.1875
-0.236328 -0.0322266 0.187988
-0.235352 -0.0322266 0.188477
0 0 0
0 0 0
0 0 0
0 0 0
0 0 0
0 0 0
0 0 0
0 0 0
0 0 0
0 0 0
0 0 0
0 0 0
0 0 0
0 0 0
0 0 0
0 0 0
0 0 0
0 0 0
0 0 0
-2.80273 -0.40918 2.53467
-2.79248 -0.40918 2.54053
-2.77441 -0.408203 2.53955
-2.75928 -0.407227 2.54102
-2.74316 -0.40625 2.54102
-2.72607 -0.405273 2.54102
-2.70801 -0.404297 2.53955
-2.69043 -0.402832 2.53809
-2.67236 -0.401855 2.53613
-2.65332 -0.400391 2.53369
-2.63477 -0.398926 2.53076
-2.61719 -0.397949 2.52881
-2.6001 -0.396484 2.52783
-2.58447 -0.395508 2.52783
-2.56934 -0.394531 2.52783
-2.55322 -0.394043 2.52734
-2.5376 -0.393066 2.52686
-2.52197 -0.39209 2.52637
-2.50635 -0.391113 2.52539
-2.48926 -0.390137 2.52393
-2.47217 -0.388672 2.52148
-2.45703 -0.387695 2.521
-2.44141 -0.386719 2.52051
-2.42627 -0.385742 2.51953
-2.40869 -0.384766 2.51709
-2.39258 -0.383301 2.51465
-2.37598 -0.382324 2.5127
-2.35889 -0.381348 2.50928
-2.34229 -0.379883 2.50684
-2.32617 -0.378418 2.50391
-2.30957 -0.377441 2.50146
-2.29443 -0.376465 2.49951
-2.27783 -0.375488 2.49707
-2.26123 -0.374023 2.49316
-2.24512 -0.373047 2.49023
-2.229 -0.37207 2.4873
-2.2124 -0.370605 2.48389
-2.19727 -0.369141 2.48096
-2.18213 -0.368164 2.479
-2.16504 -0.366699 2.47461
-2.14697 -0.365723 2.46875
-2.13135 -0.364258 2.46533
-2.11621 -0.363281 2.46289
-2.09912 -0.361816 2.45752
-2.08252 -0.360352 2.45312
-2.06689 -0.359375 2.44922
-2.05176 -0.358398 2.4458
-2.03613 -0.356934 2.44189
-2.02051 -0.355469 2.43799
-2.00439 -0.354492 2.43311
-1.99072 -0.353516 2.43066
-1.97754 -0.352539 2.42969
-1.96338 -0.351562 2.42676
-1.9502 -0.350586 2.42529
-1.93701 -0.350098 2.42285
-1.9248 -0.349121 2.42236
-1.91211 -0.348633 2.42139
-1.89941 -0.347656 2.41992
-1.8877 -0.347168 2.41943
-1.87598 -0.34668 2.41943
-1.86475 -0.346191 2.41943
-1.85498 -0.345703 2.4209
-1.84424 -0.345215 2.42188
-1.83301 -0.344727 2.42236
-1.82324 -0.344727 2.42383
-1.81348 -0.344238 2.42578
-1.8042 -0.344238 2.42822
-1.79541 -0.34375 2.43164
-1.78564 -0.34375 2.43262
-1.77637 -0.34375 2.43506
-1.76758 -0.343262 2.43799
-1.75977 -0.34375 2.44189
-1.75146 -0.343262 2.4458
-1.74316 -0.34375 2.44971
-1.73389 -0.34375 2.45215
-1.72559 -0.343262 2.45508
-1.71631 -0.343262 2.45752
-1.70801 -0.343262 2.46045
-1.69971 -0.343262 2.46387
-1.69092 -0.343262 2.46631
-1.68164 -0.342773 2.46875
-1.67285 -0.342773 2.47119
-1.66406 -0.342773 2.47363
-1.6543 -0.342285 2.47461
-1.64502 -0.342285 2.47656
-1.63428 -0.341797 2.47607
-1.62402 -0.341309 2.47607
-1.61279 -0.34082 2.47461
-1.6001 -0.339844 2.47168
-1.58643 -0.338379 2.46582
-1.57324 -0.337402 2.46094
-1.55908 -0.336426 2.45508
-1.54639 -0.335449 2.45068
-1.53418 -0.334473 2.44629
-1.52197 -0.333496 2.44287
-1.51025 -0.33252 2.44043
-1.5 -0.332031 2.43945
-1.48975 -0.331543 2.43896
-1.479 -0.331055 2.4375
-1.46973 -0.331055 2.4375
-1.45996 -0.330566 2.4375
-1.4502 -0.330078 2.4375
-1.44043 -0.32959 2.43701
-1.43018 -0.329102 2.43604
-1.42041 -0.328613 2.43604
-1.41064 -0.328125 2.43555
-1.40088 -0.328125 2.43457
-1.39062 -0.327637 2.43359
-1.38086 -0.327148 2.43311
-1.37109 -0.32666 2.43262
-1.36084 -0.326172 2.43066
-1.35107 -0.325195 2.42969
-1.34131 -0.325195 2.42871
-1.33154 -0.324707 2.42725
-1.32129 -0.324219 2.42529
-1.31104 -0.32373 2.42432
-1.30176 -0.323242 2.42334
-1.2915 -0.322754 2.42188
-1.28223 -0.322266 2.42139
-1.27295 -0.321777 2.42041
-1.26367 -0.321289 2.41943
-1.25391 -0.320801 2.41895
-1.24463 -0.320312 2.41797
-1.23535 -0.320312 2.41699
-1.22559 -0.319824 2.41553
-1.21582 -0.319336 2.41406
-1.20654 -0.318848 2.41309
-1.19678 -0.318359 2.41113
-1.1875 -0.317871 2.40967
-1.17773 -0.316895 2.40771
-1.16797 -0.316406 2.40576
-1.15918 -0.316406 2.40527
-1.15039 -0.315918 2.40479
-1.14111 -0.31543 2.40332
-1.13184 -0.314941 2.40234
-1.12256 -0.314453 2.40088
-1.11377 -0.314453 2.3999
-1.10449 -0.313965 2.39893
-1.09521 -0.313477 2.39746
-1.08643 -0.312988 2.396
-1.07666 -0.3125 2.39307
-1.06689 -0.311523 2.39062
-1.05811 -0.311523 2.38916
-1.0498 -0.311035 2.38916
-1.04102 -0.310547 2.38818
-1.03174 -0.310547 2.38672
-1.02295 -0.310059 2.38574
-1.01465 -0.30957 2.38574
-1.00586 -0.30957 2.38477
-0.99707 -0.309082 2.38281
-0.988281 -0.308594 2.38086
-0.979004 -0.308105 2.37891
-0.970215 -0.307617 2.37695
-0.961426 -0.307129 2.37549
-0.952637 -0.306641 2.37402
-0.943848 -0.306152 2.37256
-0.936035 -0.306152 2.37256
-0.927734 -0.305664 2.37256
-0.919434 -0.305664 2.37158
-0.910645 -0.305176 2.36963
-0.902344 -0.304688 2.36816
-0.893555 -0.304199 2.36719
-0.885254 -0.304199 2.36572
-0.876953 -0.303711 2.36426
-0.868164 -0.303223 2.36279
-0.859863 -0.302734 2.36035
-0.851074 -0.302246 2.3584
-0.842285 -0.301758 2.35645
-0.834473 -0.301758 2.35596
-0.827148 -0.301758 2.35693
-0.819336 -0.30127 2.35645
-0.811035 -0.30127 2.35596
-0.803223 -0.300781 2.35547
-0.79541 -0.300781 2.35498
-0.787598 -0.300293 2.35449
-0.779297 -0.300293 2.35449
-0.770996 -0.299805 2.35254
-0.763184 -0.299316 2.35059
-0.754395 -0.298828 2.34863
-0.746582 -0.298828 2.34766
-0.73877 -0.29834 2.34619
-0.730469 -0.297852 2.34473
-0.722656 -0.297852 2.34424
-0.714844 -0.297852 2.34326
-0.70752 -0.297363 2.34375
-0.700195 -0.297363 2.34473
-0.692383 -0.297363 2.34424
-0.68457 -0.296875 2.34277
-0.676758 -0.296875 2.34229
-0.668945 -0.296387 2.34082
-0.660645 -0.295898 2.33887
-0.652832 -0.29541 2.3374
-0.644531 -0.29541 2.33496
-0.63623 -0.294922 2.33203
-0.628418 -0.294434 2.33008
-0.620605 -0.293945 2.32861
-0.613281 -0.293945 2.32812
-0.605469 -0.293457 2.32764
-0.598145 -0.293457 2.32666
-0.590332 -0.293457 2.32568
-0.58252 -0.292969 2.32471
-0.575195 -0.29248 2.32373
-0.567383 -0.29248 2.32275
-0.560059 -0.291992 2.32178
-0.552246 -0.291992 2.31982
-0.544434 -0.291504 2.31689
-0.536621 -0.291016 2.31592
-0.528809 -0.290527 2.31348
-0.521484 -0.290527 2.31299
-0.51416 -0.290527 2.3125
-0.507324 -0.290527 2.3125
-0.499512 -0.290039 2.31201
-0.492188 -0.290039 2.31104
-0.484863 -0.290039 2.31055
-0.477539 -0.289551 2.31006
-0.470215 -0.289551 2.30957
-0.462891 -0.289062 2.30762
-0.455078 -0.288574 2.30566
-0.447754 -0.288086 2.30322
-0.439941 -0.288086 2.30127
-0.432617 -0.287598 2.2998
-0.425293 -0.287598 2.29883
-0.417969 -0.287109 2.29736
-0.410645 -0.287109 2.29541
-0.40332 -0.286621 2.29395
-0.395996 -0.286621 2.29297
-0.388672 -0.286133 2.2915
-0.381348 -0.286133 2.28955
-0.374023 -0.285645 2.28809
-0.367188 -0.285645 2.28857
-0.359863 -0.285156 2.28711
-0.352539 -0.285156 2.28662
-0.345703 -0.285156 2.28613
-0.338867 -0.285156 2.28613
-0.331543 -0.285156 2.28613
-0.324707 -0.285156 2.28564
-0.317383 -0.284668 2.28467
-0.310547 -0.284668 2.28467
-0.303223 -0.28418 2.28223
-0.295898 -0.28418 2.28076
-0.289062 -0.28418 2.28076
-0.281738 -0.283691 2.27979
-0.274902 -0.283203 2.27783
-0.267578 -0.283203 2.27686
-0.260742 -0.283203 2.27637
-0.253906 -0.283203 2.27637
-0.24707 -0.283203 2.27588
-0.239746 -0.282715 2.2749
-0.23291 -0.282715 2.27344
-0.226074 -0.282715 2.27344
-0.21875 -0.282227 2.27197
-0.211914 -0.282227 2.27197
-0.205078 -0.282227 2.27148
-0.197754 -0.281738 2.26953
-0.190918 -0.281738 2.26904
-0.184082 -0.281738 2.26855
-0.177246 -0.281738 2.26758
-0.17041 -0.28125 2.26709
-0.163574 -0.28125 2.26709
-0.156738 -0.28125 2.2666
-0.149902 -0.28125 2.2666
-0.143066 -0.28125 2.26758
-0.135742 -0.28125 2.26709
-0.129395 -0.28125 2.26709
-0.12207 -0.28125 2.26709
-0.115723 -0.28125 2.2666
-0.108398 -0.28125 2.26709
-0.101562 -0.28125 2.26807
-0.0952148 -0.281738 2.26904
-0.0883789 -0.28125 2.26904
-0.081543 -0.281738 2.27002
-0.074707 -0.281738 2.27197
-0.0678711 -0.282227 2.27344
-0.0610352 -0.282227 2.27344
-0.0541992 -0.282227 2.2749
-0.0473633 -0.282227 2.27686
-0.0405273 -0.282715 2.27734
-0.0336914 -0.282715 2.27783
-0.0268555 -0.282715 2.27832
-0.0200195 -0.282715 2.27881
-0.0131836 -0.282715 2.27881
-0.00634766 -0.282715 2.27832
0.000976562 -0.282715 2.27783
0.00732422 -0.282715 2.27783
0.0146484 -0.282227 2.27734
0.0214844 -0.282227 2.27734
0.0283203 -0.282715 2.27734
0.0351562 -0.282715 2.27881
0.0419922 -0.282715 2.28076
0.0488281 -0.283203 2.28174
0.0556641 -0.283203 2.28271
0.0625 -0.283203 2.28369
0.0698242 -0.283691 2.28516
0.0766602 -0.283691 2.28564
0.0834961 -0.283691 2.28613
0.090332 -0.283691 2.28564
0.097168 -0.283203 2.28467
0.104004 -0.283203 2.2832
0.11084 -0.283203 2.28174
0.117676 -0.283203 2.28027
0.124512 -0.282715 2.27783
0.131348 -0.282227 2.2749
0.137695 -0.282227 2.27295
0.144531 -0.282227 2.27051
0.151367 -0.281738 2.26758
0.157715 -0.28125 2.26465
0.165039 -0.28125 2.26416
0.171387 -0.28125 2.26416
0.178711 -0.28125 2.26514
0.185547 -0.28125 2.26465
0.192383 -0.281738 2.26611
0.199219 -0.281738 2.26807
0.206543 -0.282227 2.27002
0.213379 -0.282715 2.27148
0.220703 -0.282715 2.27344
0.227539 -0.282715 2.2749
0.234863 -0.283203 2.27588
0.241699 -0.283203 2.27734
0.248535 -0.283691 2.27881
0.255859 -0.283691 2.27979
0.263184 -0.28418 2.28174
0.27002 -0.28418 2.28369
0.277832 -0.284668 2.2876
0.285156 -0.285645 2.29199
0.292969 -0.286621 2.2998
0.30127 -0.287598 2.30811
0.310547 -0.289551 2.32324
0.319824 -0.291992 2.34082
0.328613 -0.292969 2.35059
0.336914 -0.294434 2.35889
0.345215 -0.29541 2.36572
0.353516 -0.295898 2.37305
0.36084 -0.296387 2.37549
0.368652 -0.296875 2.37695
0.375977 -0.296875 2.37842
0.383301 -0.296875 2.37695
0.390137 -0.296387 2.37402
0.396973 -0.296387 2.37109
0.40332 -0.295898 2.36621
0.409668 -0.294922 2.35986
0.415039 -0.293945 2.35059
0.42041 -0.29248 2.33789
0.423828 -0.290039 2.31689
0.427734 -0.288086 2.30029
0.432129 -0.286133 2.28613
0.438965 -0.286133 2.28369
0.44873 -0.288086 2.29785
0.458008 -0.289551 2.30811
0.469238 -0.291992 2.32764
0.479492 -0.293945 2.34229
0.487793 -0.294922 2.34863
0.496582 -0.295898 2.35498
0.505371 -0.296387 2.36035
0.513672 -0.297363 2.36426
0.520996 -0.297363 2.36572
0.528809 -0.297363 2.36572
0.535156 -0.297363 2.3623
0.541992 -0.296875 2.35889
0.547852 -0.296387 2.35303
0.553711 -0.29541 2.3457
0.558105 -0.293945 2.33398
0.562012 -0.29248 2.31934
0.566406 -0.291016 2.30762
0.571777 -0.290039 2.29883
0.577148 -0.289062 2.29199
0.58252 -0.288086 2.28369
0.588379 -0.287598 2.27881
0.594727 -0.287598 2.2749
0.601074 -0.287109 2.27148
0.607422 -0.286621 2.26855
0.61377 -0.286621 2.26562
0.620605 -0.286621 2.2627
0.626953 -0.286133 2.25977
0.633301 -0.286133 2.25781
0.639648 -0.285645 2.25439
0.646484 -0.285645 2.25195
0.65332 -0.285645 2.25049
0.659668 -0.285156 2.24805
0.666504 -0.285156 2.24609
0.67334 -0.285156 2.24463
0.680176 -0.285156 2.24316
0.687012 -0.285156 2.24121
0.693359 -0.285156 2.23877
0.699707 -0.284668 2.23584
0.706543 -0.284668 2.2334
0.712891 -0.284668 2.23047
0.718262 -0.28418 2.22559
0.724121 -0.283203 2.22021
0.728516 -0.282227 2.21143
0.73291 -0.28125 2.20215
0.733887 -0.279297 2.18359
0.732422 -0.276367 2.15869
0 0 0
0 0 0
0 0 0
0 0 0
0 0 0
0 0 0
0 0 0
0 0 0
0 0 0
0.816406 -0.281738 2.18945
0.824219 -0.282227 2.19189
0.833008 -0.282715 2.19434
0.842773 -0.283691 2.20117
0.851562 -0.284668 2.20459
0.859375 -0.284668 2.20508
0.866699 -0.285156 2.20508
0.875 -0.285156 2.20605
0.882324 -0.285156 2.20557
0.890137 -0.285645 2.20605
0.897949 -0.286133 2.20654
0.905762 -0.286133 2.20703
0.914062 -0.286621 2.2085
0.922363 -0.287109 2.21045
0.930664 -0.287598 2.21191
0.939453 -0.288086 2.21436
0.948242 -0.288574 2.2168
0.956055 -0.289062 2.2168
0.963379 -0.289062 2.21631
0.971191 -0.289062 2.21582
0.978516 -0.289062 2.21484
0.98584 -0.289551 2.21338
0.993164 -0.289551 2.21289
1.00098 -0.289551 2.2124
1.00879 -0.290039 2.2124
1.01709 -0.290039 2.21338
1.02539 -0.290527 2.21387
1.03369 -0.291016 2.21484
1.04248 -0.291504 2.2168
1.05127 -0.291992 2.21826
1.05908 -0.291992 2.21826
1.06689 -0.29248 2.21777
1.0752 -0.29248 2.21777
1.0835 -0.292969 2.21777
1.09131 -0.292969 2.21777
1.09912 -0.293457 2.21631
1.10693 -0.293457 2.21631
1.11572 -0.293945 2.21729
1.12451 -0.294434 2.21826
1.13281 -0.294434 2.21924
1.1416 -0.294922 2.21973
1.15039 -0.29541 2.2207
1.1582 -0.29541 2.22021
1.1665 -0.295898 2.21973
1.17529 -0.296387 2.22021
1.18359 -0.296387 2.22021
1.19238 -0.296875 2.2207
1.20068 -0.297363 2.22021
1.20947 -0.297363 2.2207
1.21826 -0.297852 2.22217
1.22803 -0.298828 2.22412
1.2373 -0.299316 2.22559
1.24707 -0.299805 2.22705
1.25635 -0.300293 2.22852
1.26562 -0.300781 2.229
1.27539 -0.30127 2.23096
1.28467 -0.301758 2.23242
1.29395 -0.302246 2.23291
1.30371 -0.302734 2.23438
1.3125 -0.302734 2.23438
1.32227 -0.303223 2.23584
1.33105 -0.303711 2.23584
1.34082 -0.304199 2.2373
1.34961 -0.304688 2.2373
1.35889 -0.305176 2.23779
1.36768 -0.305176 2.2373
1.37695 -0.305664 2.2373
1.38623 -0.306152 2.23682
1.39502 -0.306641 2.23682
1.4043 -0.306641 2.23682
1.41309 -0.307129 2.23584
1.42285 -0.307617 2.23682
1.43213 -0.308105 2.23682
1.44141 -0.308594 2.2373
1.45117 -0.308594 2.2373
1.46143 -0.30957 2.23828
1.4707 -0.30957 2.23828
1.47998 -0.310059 2.23779
1.48926 -0.310547 2.23779
1.49951 -0.311035 2.23828
1.50879 -0.311523 2.23779
1.51807 -0.312012 2.23779
1.52734 -0.312012 2.23682
1.53662 -0.3125 2.23584
1.5459 -0.3125 2.23486
1.55518 -0.312988 2.23438
1.56494 -0.313477 2.23438
1.57471 -0.313965 2.23389
1.5835 -0.314453 2.23242
1.59521 -0.314941 2.23438
1.60742 -0.315918 2.2373
1.61768 -0.316406 2.23828
1.62988 -0.317383 2.24072
1.64209 -0.317871 2.24365
1.65479 -0.318848 2.24658
1.66602 -0.319824 2.24756
1.6792 -0.320801 2.25098
1.69189 -0.321777 2.25439
1.70459 -0.322754 2.25732
1.71436 -0.322754 2.25586
1.72656 -0.32373 2.2583
1.74072 -0.324707 2.26221
1.74902 -0.324707 2.25928
1.76318 -0.326172 2.26318
1.77441 -0.32666 2.26367
1.79004 -0.328125 2.26953
1.80078 -0.328613 2.26904
0 0 0
0 0 0
0 0 0
0 0 0
0 0 0
0 0 0
0 0 0
0 0 0
0 0 0
0 0 0
0 0 0
0.74707 -0.129395 0.874023
0.754883 -0.130371 0.878418
0.759766 -0.130371 0.878418
0.76416 -0.130859 0.87793
0.768555 -0.130859 0.87793
0.773438 -0.131348 0.87793
0.779297 -0.131836 0.878906
0.78418 -0.131836 0.878906
0.788086 -0.131836 0.87793
0.793457 -0.132324 0.878418
0.799316 -0.132812 0.879883
0.804688 -0.133301 0.880371
0.811035 -0.133789 0.881836
0.816406 -0.133789 0.881836
0.820801 -0.134277 0.881348
0.82666 -0.134766 0.882324
0.831543 -0.134766 0.882324
0.836914 -0.135254 0.882324
0.843262 -0.135742 0.883301
0.848633 -0.135742 0.883301
0.854492 -0.13623 0.884766
0.860352 -0.136719 0.885254
0.867188 -0.137207 0.88623
0.875488 -0.138184 0.889648
0.880371 -0.138184 0.888672
0.884766 -0.138672 0.887695
0.889648 -0.138672 0.887207
0.895996 -0.13916 0.888184
0.900879 -0.139648 0.887207
0.90625 -0.139648 0.887207
0.911133 -0.140137 0.88623
0.915039 -0.140137 0.884766
0.919434 -0.140137 0.883301
0.925293 -0.140625 0.883301
0.931152 -0.141113 0.883301
0.935547 -0.141113 0.882324
0.938965 -0.141113 0.879883
0.943359 -0.141113 0.878418
0.947754 -0.141602 0.877441
0.950684 -0.141113 0.874512
0.954102 -0.141113 0.871582
0.957031 -0.141113 0.869141
0.959473 -0.141113 0.865723
0.961426 -0.140625 0.862305
0.962891 -0.140625 0.85791
0.964355 -0.140137 0.854492
0.964844 -0.139648 0.849121
0.964844 -0.13916 0.844238
0.964844 -0.138672 0.838867
0.963867 -0.138184 0.83252
0.964355 -0.137695 0.828125
0.964355 -0.137207 0.822754
0.95752 -0.135742 0.811523
0.95166 -0.134766 0.801758
0.95459 -0.134277 0.799316
0 0 0
0 0 0
0 0 0
0 0 0
0 0 0
0 0 0
0 0 0
0 0 0
0 0 0
0 0 0
0 0 0
0 0 0
0 0 0
0 0 0
0 0 0
0 0 0
0 0 0
0 0 0
0 0 0
0 0 0
0 0 0
0 0 0
0 0 0
0 0 0
0 0 0
0 0 0
0 0 0
-0.255371 -0.0317383 0.183105
-0.254395 -0.0317383 0.183105
-0.25293 -0.0317383 0.183594
-0.251953 -0.0317383 0.183594
-0.250488 -0.0317383 0.184082
-0.249512 -0.0317383 0.184082
-0.248535 -0.0317383 0.184082
-0.24707 -0.0317383 0.18457
-0.246094 -0.0317383 0.185059
-0.245117 -0.0317383 0.185059
-0.243652 -0.0317383 0.185547
-0.242676 -0.03125 0.185547
-0.241211 -0.03125 0.185547
-0.240234 -0.03125 0.186035
-0.239258 -0.03125 0.186523
-0.238281 -0.03125 0.186523
-0.237305 -0.03125 0.187012
-0.236328 -0.03125 0.1875
-0.235352 -0.03125 0.187988
-0.234863 -0.03125 0.188477
0 0 0
0 0 0
0 0 0
0 0 0
0 0 0
0 0 0
0 0 0
0 0 0
0 0 0
0 0 0
0 0 0
0 0 0
0 0 0
0 0 0
0 0 0
0 0 0
0 0 0
0 0 0
0 0 0
-2.79248 -0.397949 2.52637
-2.78223 -0.397949 2.53223
-2.77246 -0.397949 2.53857
-2.75781 -0.396973 2.54053
-2.74219 -0.396484 2.5415
-2.72559 -0.395508 2.5415
-2.7085 -0.394531 2.54053
-2.69092 -0.393066 2.53955
-2.67188 -0.39209 2.53662
-2.65332 -0.390625 2.53418
-2.63525 -0.38916 2.53223
-2.61719 -0.388184 2.53027
-2.6001 -0.387207 2.52832
-2.58447 -0.38623 2.52832
-2.56934 -0.385254 2.52881
-2.55322 -0.384277 2.52832
-2.53809 -0.383301 2.52783
-2.52197 -0.382324 2.52734
-2.50537 -0.381348 2.52588
-2.48828 -0.380371 2.52393
-2.47217 -0.379395 2.52246
-2.45703 -0.378418 2.52197
-2.44141 -0.377441 2.521
-2.42578 -0.376465 2.52002
-2.41113 -0.375488 2.51953
-2.39453 -0.374512 2.51758
-2.37793 -0.373535 2.51514
-2.36084 -0.37207 2.51221
-2.34277 -0.370605 2.5083
-2.32666 -0.369629 2.50537
-2.31055 -0.368652 2.50293
-2.29492 -0.367676 2.50098
-2.27832 -0.366211 2.49854
-2.26172 -0.365234 2.49463
-2.24561 -0.36377 2.4917
-2.22949 -0.362793 2.48877
-2.21338 -0.361816 2.48535
-2.19775 -0.360352 2.48242
-2.18213 -0.359375 2.47998
-2.16504 -0.35791 2.47559
-2.14893 -0.356934 2.47168
-2.1333 -0.355957 2.46875
-2.11572 -0.354492 2.46338
-2.09863 -0.353027 2.45801
-2.08252 -0.351562 2.45361
-2.06641 -0.350586 2.44922
-2.05127 -0.349609 2.4458
-2.03564 -0.348145 2.44189
-2.02002 -0.347168 2.43799
-2.00439 -0.345703 2.43359
-1.98926 -0.344727 2.43018
-1.97656 -0.34375 2.42871
-1.96387 -0.343262 2.42773
-1.95068 -0.342285 2.42627
-1.93701 -0.341309 2.42432
-1.9248 -0.34082 2.42334
-1.91357 -0.340332 2.42334
-1.90039 -0.339355 2.42188
-1.88818 -0.338867 2.4209
-1.87646 -0.338379 2.42041
-1.86523 -0.337891 2.4209
-1.85547 -0.337402 2.42236
-1.84424 -0.336914 2.42285
-1.83398 -0.336426 2.42334
-1.82324 -0.335938 2.4248
-1.81348 -0.335938 2.42676
-1.80469 -0.335938 2.4292
-1.7959 -0.335938 2.43262
-1.78662 -0.335449 2.43457
-1.77686 -0.335449 2.43701
-1.76855 -0.335449 2.43994
-1.76025 -0.335449 2.44385
-1.75244 -0.335449 2.44775
-1.74463 -0.335449 2.45215
-1.73682 -0.335449 2.45605
-1.72803 -0.335449 2.45947
-1.71973 -0.335449 2.46289
-1.71143 -0.335449 2.46631
-1.70312 -0.335449 2.46973
-1.69434 -0.335449 2.47217
-1.68555 -0.335449 2.4751
-1.67676 -0.335449 2.47754
-1.66699 -0.334961 2.479
-1.65723 -0.334961 2.47998
-1.64746 -0.334473 2.48096
-1.63672 -0.333984 2.48047
-1.62598 -0.333496 2.47998
-1.61475 -0.333008 2.47803
-1.60205 -0.332031 2.47461
-1.58838 -0.330566 2.46875
-1.57373 -0.32959 2.4624
-1.55957 -0.328125 2.45654
-1.54639 -0.327148 2.45117
-1.53369 -0.326172 2.44727
-1.52148 -0.325684 2.44336
-1.51025 -0.324707 2.44043
-1.5 -0.324219 2.43994
-1.48975 -0.32373 2.43945
